ply
format ascii 1.0
element vertex 677
property float x
property float y
property float z
property float gap
end_header
0.0186886 0.000407787 -0.199738 -0.199738
0.0167653 0.00826773 -0.199738 -0.199738
0.0117004 0.0145784 -0.199738 -0.199738
0.00444308 0.0181574 -0.199738 -0.199738
-0.00364683 0.0183339 -0.199738 -0.199738
-0.0110534 0.0150749 -0.199738 -0.199738
-0.0163887 0.00899115 -0.199738 -0.199738
-0.018653 0.00122258 -0.199738 -0.199738
-0.0174221 -0.00677507 -0.199738 -0.199738
-0.0129265 -0.0135032 -0.199738 -0.199738
-0.00600869 -0.017701 -0.199738 -0.199738
0.00203505 -0.0185819 -0.199738 -0.199738
0.00969746 -0.0159809 -0.199738 -0.199738
0.0155427 -0.0103853 -0.199738 -0.199738
0.0184755 -0.00284365 -0.199738 -0.199738
0.0370057 0.0052832 -0.199213 -0.199213
0.0349851 0.0131675 -0.199213 -0.199213
0.0313058 0.0204275 -0.199213 -0.199213
0.0261424 0.0267191 -0.199213 -0.199213
0.0197397 0.031744 -0.199213 -0.199213
0.0124011 0.035264 -0.199213 -0.199213
0.00447461 0.0371122 -0.199213 -0.199213
-0.00366401 0.037201 -0.199213 -0.199213
-0.0116289 0.0355261 -0.199213 -0.199213
-0.0190425 0.0321671 -0.199213 -0.199213
-0.0255534 0.027283 -0.199213 -0.199213
-0.0308528 0.0211055 -0.199213 -0.199213
-0.0346895 0.0139275 -0.199213 -0.199213
-0.0368817 0.00608916 -0.199213 -0.199213
-0.0373254 -0.00203784 -0.199213 -0.199213
-0.0359996 -0.0100682 -0.199213 -0.199213
-0.0329671 -0.0176213 -0.199213 -0.199213
-0.0283717 -0.024339 -0.199213 -0.199213
-0.0224312 -0.0299028 -0.199213 -0.199213
-0.0154274 -0.034049 -0.199213 -0.199213
-0.00769212 -0.036581 -0.199213 -0.199213
0.000407787 -0.0373788 -0.199213 -0.199213
0.00848836 -0.0364045 -0.199213 -0.199213
0.0161665 -0.0337043 -0.199213 -0.199213
0.0230783 -0.0294063 -0.199213 -0.199213
0.0288959 -0.0237142 -0.199213 -0.199213
0.0333437 -0.0168979 -0.199213 -0.199213
0.0362106 -0.00928044 -0.199213 -0.199213
0.037361 -0.00122304 -0.199213 -0.199213
0.0642445 0.0121559 -0.197772 -0.197772
0.0600907 0.0257728 -0.197772 -0.197772
0.053088 0.0381679 -0.197772 -0.197772
0.0435686 0.0487535 -0.197772 -0.197772
0.0319836 0.0570278 -0.197772 -0.197772
0.0188824 0.0625985 -0.197772 -0.197772
0.00488604 0.0652016 -0.197772 -0.197772
-0.009342 0.0647136 -0.197772 -0.197772
-0.0231271 0.0611577 -0.197772 -0.197772
-0.0358159 0.0547024 -0.197772 -0.197772
-0.0468067 0.0456537 -0.197772 -0.197772
-0.0555784 0.0344407 -0.197772 -0.197772
-0.0617153 0.021595 -0.197772 -0.197772
-0.0649264 0.00772544 -0.197772 -0.197772
-0.0650595 -0.00651034 -0.197772 -0.197772
-0.0621082 -0.0204375 -0.197772 -0.197772
-0.0562126 -0.0333957 -0.197772 -0.197772
-0.0476519 -0.0447707 -0.197772 -0.197772
-0.0368322 -0.0540232 -0.197772 -0.197772
-0.0242664 -0.0607146 -0.197772 -0.197772
-0.0105501 -0.0645277 -0.197772 -0.197772
0.00366628 -0.0652816 -0.197772 -0.197772
0.0177089 -0.0629406 -0.197772 -0.197772
0.030912 -0.0576158 -0.197772 -0.197772
0.0426496 -0.0495595 -0.197772 -0.197772
0.0523652 -0.0391536 -0.197772 -0.197772
0.0595984 -0.0268916 -0.197772 -0.197772
0.0640061 -0.0133548 -0.197772 -0.197772
0.0933285 0.00122208 -0.195545 -0.195545
0.0908517 0.0213931 -0.195545 -0.195545
0.0840679 0.0405499 -0.195545 -0.195545
0.0732985 0.0577843 -0.195545 -0.195545
0.0590542 0.0722793 -0.195545 -0.195545
0.0420103 0.0833477 -0.195545 -0.195545
0.0229748 0.0904647 -0.195545 -0.195545
0.00285002 0.093293 -0.195545 -0.195545
-0.0174098 0.0916984 -0.195545 -0.195545
-0.0368443 0.0857566 -0.195545 -0.195545
-0.0545321 0.0757493 -0.195545 -0.195545
-0.0696346 0.0621508 -0.195545 -0.195545
-0.0814359 0.0456059 -0.195545 -0.195545
-0.0893765 0.0268989 -0.195545 -0.195545
-0.0930799 0.00691669 -0.195545 -0.195545
-0.0923706 -0.0133934 -0.195545 -0.195545
-0.0872821 -0.0330686 -0.195545 -0.195545
-0.0780558 -0.0511761 -0.195545 -0.195545
-0.0651291 -0.0668574 -0.195545 -0.195545
-0.0491147 -0.0793691 -0.195545 -0.195545
-0.0307719 -0.0881181 -0.195545 -0.195545
-0.0109702 -0.0926896 -0.195545 -0.195545
0.00935154 -0.0928669 -0.195545 -0.195545
0.0292299 -0.0886415 -0.195545 -0.195545
0.0477226 -0.0802138 -0.195545 -0.195545
0.0639528 -0.0679834 -0.195545 -0.195545
0.0771512 -0.05253 -0.195545 -0.195545
0.086692 -0.0345862 -0.195545 -0.195545
0.0921229 -0.0150028 -0.195545 -0.195545
0.121018 0.00691325 -0.192535 -0.192535
0.116653 0.0329424 -0.192535 -0.192535
0.106758 0.0574099 -0.192535 -0.192535
0.0918014 0.0791557 -0.192535 -0.192535
0.0724929 0.0971488 -0.192535 -0.192535
0.0497477 0.110536 -0.192535 -0.192535
0.024644 0.118684 -0.192535 -0.192535
-0.00162794 0.121204 -0.192535 -0.192535
-0.0278228 0.117979 -0.192535 -0.192535
-0.0526985 0.10916 -0.192535 -0.192535
-0.075076 0.0951668 -0.192535 -0.192535
-0.0938943 0.0766615 -0.192535 -0.192535
-0.108261 0.0545219 -0.192535 -0.192535
-0.117496 0.0297975 -0.192535 -0.192535
-0.12116 0.00366046 -0.192535 -0.192535
-0.11908 -0.0226501 -0.192535 -0.192535
-0.111355 -0.0478869 -0.192535 -0.192535
-0.098351 -0.0708534 -0.192535 -0.192535
-0.0806842 -0.090461 -0.192535 -0.192535
-0.0591923 -0.10578 -0.192535 -0.192535
-0.0348942 -0.116084 -0.192535 -0.192535
-0.0089419 -0.120885 -0.192535 -0.192535
0.0174343 -0.119955 -0.192535 -0.192535
0.0429841 -0.113338 -0.192535 -0.192535
0.066496 -0.101348 -0.192535 -0.192535
0.0868555 -0.0845532 -0.192535 -0.192535
0.103097 -0.06375 -0.192535 -0.192535
0.114452 -0.0399245 -0.192535 -0.192535
0.12038 -0.0142063 -0.192535 -0.192535
0.148241 0.0150097 -0.188744 -0.188744
0.141478 0.046739 -0.188744 -0.188744
0.128008 0.0762525 -0.188744 -0.188744
0.10847 0.102151 -0.188744 -0.188744
0.0837891 0.123207 -0.188744 -0.188744
0.0551361 0.138422 -0.188744 -0.188744
0.0238693 0.147074 -0.188744 -0.188744
-0.00852921 0.148754 -0.188744 -0.188744
-0.0405233 0.143382 -0.188744 -0.188744
-0.0705963 0.131212 -0.188744 -0.188744
-0.0973225 0.112822 -0.188744 -0.188744
-0.119435 0.0890836 -0.188744 -0.188744
-0.135885 0.0611215 -0.188744 -0.188744
-0.145893 0.0302618 -0.188744 -0.188744
-0.148985 -0.00203252 -0.188744 -0.188744
-0.145013 -0.0342305 -0.188744 -0.188744
-0.134167 -0.0648057 -0.188744 -0.188744
-0.11696 -0.0923086 -0.188744 -0.188744
-0.0942085 -0.115435 -0.188744 -0.188744
-0.0669906 -0.133089 -0.188744 -0.188744
-0.0365968 -0.144434 -0.188744 -0.188744
-0.00446803 -0.148931 -0.188744 -0.188744
0.0278726 -0.146368 -0.188744 -0.188744
0.0588918 -0.136866 -0.188744 -0.188744
0.087119 -0.120875 -0.188744 -0.188744
0.111216 -0.099154 -0.188744 -0.188744
0.130041 -0.0727321 -0.188744 -0.188744
0.1427 -0.0428621 -0.188744 -0.188744
0.148595 -0.0109601 -0.188744 -0.188744
0.174819 0.0254718 -0.184176 -0.184176
0.165162 0.0627057 -0.184176 -0.184176
0.147675 0.0969669 -0.184176 -0.184176
0.123187 0.126631 -0.184176 -0.184176
0.0928587 0.150292 -0.184176 -0.184176
0.0581285 0.166828 -0.184176 -0.184176
0.0206425 0.175454 -0.184176 -0.184176
-0.0178221 0.175763 -0.184176 -0.184176
-0.0554418 0.16774 -0.184176 -0.184176
-0.0904331 0.151764 -0.184176 -0.184176
-0.121137 0.128593 -0.184176 -0.184176
-0.146098 0.099326 -0.184176 -0.184176
-0.164133 0.0653501 -0.184176 -0.184176
-0.174387 0.0282761 -0.184176 -0.184176
-0.176373 -0.0101385 -0.184176 -0.184176
-0.169998 -0.0480723 -0.184176 -0.184176
-0.155564 -0.0837272 -0.184176 -0.184176
-0.133755 -0.115413 -0.184176 -0.184176
-0.105604 -0.141627 -0.184176 -0.184176
-0.0724473 -0.161127 -0.184176 -0.184176
-0.0358558 -0.172988 -0.184176 -0.184176
0.00243551 -0.176648 -0.184176 -0.184176
0.0406114 -0.171933 -0.184176 -0.184176
0.0768619 -0.159068 -0.184176 -0.184176
0.109469 -0.138661 -0.184176 -0.184176
0.136886 -0.111681 -0.184176 -0.184176
0.157813 -0.0794065 -0.184176 -0.184176
0.171259 -0.0433673 -0.184176 -0.184176
0.176586 -0.00527208 -0.184176 -0.184176
0.200578 0.0382476 -0.178833 -0.178833
0.187545 0.0807539 -0.178833 -0.178833
0.165621 0.119432 -0.178833 -0.178833
0.135845 0.152448 -0.178833 -0.178833
0.0996294 0.178236 -0.178833 -0.178833
0.0586904 0.195575 -0.178833 -0.178833
0.014969 0.203642 -0.178833 -0.178833
-0.0294621 0.202055 -0.178833 -0.178833
-0.0724964 0.190889 -0.178833 -0.178833
-0.112094 0.170673 -0.178833 -0.178833
-0.146377 0.142366 -0.178833 -0.178833
-0.173721 0.107309 -0.178833 -0.178833
-0.192829 0.0671654 -0.178833 -0.178833
-0.202795 0.0238375 -0.178833 -0.178833
-0.203148 -0.0206205 -0.178833 -0.178833
-0.193869 -0.064101 -0.178833 -0.178833
-0.1754 -0.104543 -0.178833 -0.178833
-0.148615 -0.140028 -0.178833 -0.178833
-0.114785 -0.168875 -0.178833 -0.178833
-0.0755126 -0.189716 -0.178833 -0.178833
-0.0326606 -0.201563 -0.178833 -0.178833
0.0117397 -0.203854 -0.178833 -0.178833
0.0555835 -0.196481 -0.178833 -0.178833
0.0967922 -0.179793 -0.178833 -0.178833
0.133412 -0.154581 -0.178833 -0.178833
0.163707 -0.122042 -0.178833 -0.178833
0.186241 -0.083716 -0.178833 -0.178833
0.199946 -0.0414216 -0.178833 -0.178833
0.231536 0.00323541 -0.17272 -0.17272
0.225347 0.0532722 -0.17272 -0.17272
0.208475 0.100783 -0.17272 -0.17272
0.18172 0.143517 -0.17272 -0.17272
0.14635 0.179446 -0.17272 -0.17272
0.104041 0.206868 -0.17272 -0.17272
0.0568006 0.224484 -0.17272 -0.17272
0.00686711 0.231456 -0.17272 -0.17272
-0.043392 0.227456 -0.17272 -0.17272
-0.0915939 0.212673 -0.17272 -0.17272
-0.135454 0.187807 -0.17272 -0.17272
-0.172892 0.154038 -0.17272 -0.17272
-0.202133 0.112966 -0.17272 -0.17272
-0.221792 0.0665384 -0.17272 -0.17272
-0.230936 0.0169566 -0.17272 -0.17272
-0.229132 -0.0334292 -0.17272 -0.17272
-0.216466 -0.0822301 -0.17272 -0.17272
-0.193537 -0.127133 -0.17272 -0.17272
-0.161433 -0.166008 -0.17272 -0.17272
-0.121675 -0.197013 -0.17272 -0.17272
-0.0761495 -0.218679 -0.17272 -0.17272
-0.0270137 -0.229977 -0.17272 -0.17272
0.0234027 -0.230372 -0.17272 -0.17272
0.0727097 -0.219846 -0.17272 -0.17272
0.11857 -0.198898 -0.17272 -0.17272
0.158809 -0.16852 -0.17272 -0.17272
0.191519 -0.130153 -0.17272 -0.17272
0.215149 -0.0856157 -0.17272 -0.17272
0.22858 -0.0370195 -0.17272 -0.17272
0.258312 0.0149133 -0.165841 -0.165841
0.248961 0.0704688 -0.165841 -0.165841
0.227808 0.122684 -0.165841 -0.165841
0.195854 0.169082 -0.165841 -0.165841
0.154616 0.207465 -0.165841 -0.165841
0.106047 0.236012 -0.165841 -0.165841
0.052451 0.25337 -0.165841 -0.165841
-0.0036317 0.258717 -0.165841 -0.165841
-0.0595422 0.251798 -0.165841 -0.165841
-0.11263 0.232942 -0.165841 -0.165841
-0.160378 0.203043 -0.165841 -0.165841
-0.200523 0.163518 -0.165841 -0.165841
-0.231162 0.116241 -0.165841 -0.165841
-0.250841 0.0634529 -0.165841 -0.165841
-0.258629 0.00765683 -0.165841 -0.165841
-0.254156 -0.0485022 -0.165841 -0.165841
-0.237633 -0.102362 -0.165841 -0.165841
-0.209845 -0.151369 -0.165841 -0.165841
-0.172109 -0.1932 -0.165841 -0.165841
-0.126213 -0.225871 -0.165841 -0.165841
-0.0743341 -0.247835 -0.165841 -0.165841
-0.0189308 -0.258049 -0.165841 -0.165841
0.03737 -0.25603 -0.165841 -0.165841
0.0918991 -0.241872 -0.165841 -0.165841
0.142071 -0.216248 -0.165841 -0.165841
0.185508 -0.180372 -0.165841 -0.165841
0.220151 -0.135946 -0.165841 -0.165841
0.244356 -0.0850737 -0.165841 -0.165841
0.256978 -0.0301687 -0.165841 -0.165841
0.284257 0.0289098 -0.158203 -0.158203
0.271262 0.0897489 -0.158203 -0.158203
0.245406 0.146333 -0.158203 -0.158203
0.207917 0.19598 -0.158203 -0.158203
0.160571 0.236336 -0.158203 -0.158203
0.105612 0.265488 -0.158203 -0.158203
0.0456464 0.282053 -0.158203 -0.158203
-0.0164831 0.285247 -0.158203 -0.158203
-0.0778312 0.274918 -0.158203 -0.158203
-0.135489 0.251556 -0.158203 -0.158203
-0.186724 0.216268 -0.158203 -0.158203
-0.229107 0.170727 -0.158203 -0.158203
-0.260628 0.117092 -0.158203 -0.158203
-0.279794 0.0579059 -0.158203 -0.158203
-0.285695 -0.00402513 -0.158203 -0.158203
-0.278051 -0.0657654 -0.158203 -0.158203
-0.257226 -0.124388 -0.158203 -0.158203
-0.224207 -0.177113 -0.158203 -0.158203
-0.180558 -0.221442 -0.158203 -0.158203
-0.128349 -0.255273 -0.158203 -0.158203
-0.0700553 -0.277002 -0.158203 -0.158203
-0.00844053 -0.285598 -0.158203 -0.158203
0.0535744 -0.280655 -0.158203 -0.158203
0.113049 -0.262407 -0.158203 -0.158203
0.167165 -0.231719 -0.158203 -0.158203
0.213356 -0.190045 -0.158203 -0.158203
0.249431 -0.139362 -0.158203 -0.158203
0.273682 -0.0820712 -0.158203 -0.158203
0.284958 -0.0208901 -0.158203 -0.158203
0.309198 0.0451603 -0.149811 -0.149811
0.292095 0.111013 -0.149811 -0.149811
0.261143 0.171602 -0.149811 -0.149811
0.217812 0.224056 -0.149811 -0.149811
0.164154 0.265888 -0.149811 -0.149811
0.102714 0.295115 -0.149811 -0.149811
0.036405 0.310351 -0.149811 -0.149811
-0.0316302 0.310874 -0.149811 -0.149811
-0.0981659 0.296659 -0.149811 -0.149811
-0.160048 0.26838 -0.149811 -0.149811
-0.214342 0.227378 -0.149811 -0.149811
-0.258475 0.175596 -0.149811 -0.149811
-0.290354 0.115489 -0.149811 -0.149811
-0.308468 0.0499077 -0.149811 -0.149811
-0.311958 -0.01804 -0.149811 -0.149811
-0.300659 -0.0851324 -0.149811 -0.149811
-0.275106 -0.148189 -0.149811 -0.149811
-0.236511 -0.20422 -0.149811 -0.149811
-0.186703 -0.250569 -0.149811 -0.149811
-0.128044 -0.28504 -0.149811 -0.149811
-0.0633154 -0.305997 -0.149811 -0.149811
0.0044154 -0.312448 -0.149811 -0.149811
0.0719368 -0.304086 -0.149811 -0.149811
0.136048 -0.281308 -0.149811 -0.149811
0.193709 -0.245194 -0.149811 -0.149811
0.242187 -0.197455 -0.149811 -0.149811
0.279183 -0.140356 -0.149811 -0.149811
0.302944 -0.0766025 -0.149811 -0.149811
0.312343 -0.00921759 -0.149811 -0.149811
0.332972 0.0635882 -0.140672 -0.140672
0.311316 0.134149 -0.140672 -0.140672
0.274901 0.19835 -0.140672 -0.140672
0.225454 0.253148 -0.140672 -0.140672
0.165319 0.295945 -0.140672 -0.140672
0.0973458 0.324711 -0.140672 -0.140672
0.024758 0.338084 -0.140672 -0.140672
-0.0490036 0.335428 -0.140672 -0.140672
-0.120442 0.316871 -0.140672 -0.140672
-0.186171 0.283292 -0.140672 -0.140672
-0.243073 0.236282 -0.140672 -0.140672
-0.288452 0.17807 -0.140672 -0.140672
-0.320156 0.111417 -0.140672 -0.140672
-0.336682 0.0394814 -0.140672 -0.140672
-0.337247 -0.0343258 -0.140672 -0.140672
-0.321823 -0.106506 -0.140672 -0.140672
-0.291143 -0.173636 -0.140672 -0.140672
-0.24666 -0.232535 -0.140672 -0.140672
-0.190483 -0.28041 -0.140672 -0.140672
-0.125276 -0.314991 -0.140672 -0.140672
-0.0541297 -0.33464 -0.140672 -0.140672
0.0195826 -0.338423 -0.140672 -0.140672
0.0923666 -0.326163 -0.140672 -0.140672
0.160772 -0.298439 -0.140672 -0.140672
0.221555 -0.256568 -0.140672 -0.140672
0.271835 -0.202533 -0.140672 -0.140672
0.309227 -0.138896 -0.140672 -0.140672
0.33196 -0.068675 -0.140672 -0.140672
0.365196 0.0051852 -0.130792 -0.130792
0.355417 0.0841051 -0.130792 -0.130792
0.328788 0.159038 -0.130792 -0.130792
0.286573 0.226431 -0.130792 -0.130792
0.230771 0.283089 -0.130792 -0.130792
0.164029 0.326327 -0.130792 -0.130792
0.0895111 0.354094 -0.130792 -0.130792
0.0107493 0.365074 -0.130792 -0.130792
-0.068522 0.358747 -0.130792 -0.130792
-0.144545 0.335413 -0.130792 -0.130792
-0.213715 0.296177 -0.130792 -0.130792
-0.272754 0.2429 -0.130792 -0.130792
-0.318861 0.178107 -0.130792 -0.130792
-0.349853 0.104871 -0.130792 -0.130792
-0.364258 0.0266634 -0.130792 -0.130792
-0.361395 -0.0528084 -0.130792 -0.130792
-0.341398 -0.129777 -0.130792 -0.130792
-0.305217 -0.200593 -0.130792 -0.130792
-0.254566 -0.261899 -0.130792 -0.130792
-0.191846 -0.310789 -0.130792 -0.130792
-0.120032 -0.344945 -0.130792 -0.130792
-0.0425268 -0.362748 -0.130792 -0.130792
0.0369944 -0.363354 -0.130792 -0.130792
0.114762 -0.346734 -0.130792 -0.130792
0.187088 -0.313676 -0.130792 -0.130792
0.250546 -0.265747 -0.130792 -0.130792
0.302125 -0.20522 -0.130792 -0.130792
0.339381 -0.134964 -0.130792 -0.130792
0.360548 -0.0583091 -0.130792 -0.130792
0.390534 0.0226205 -0.120181 -0.120181
0.376381 0.106611 -0.120181 -0.120181
0.344384 0.185548 -0.120181 -0.120181
0.296061 0.255688 -0.120181 -0.120181
0.233702 0.313707 -0.120181 -0.120181
0.160264 0.356853 -0.120181 -0.120181
0.0792279 0.383081 -0.120181 -0.120181
-0.00556414 0.391149 -0.120181 -0.120181
-0.0900924 0.380673 -0.120181 -0.120181
-0.17035 0.35215 -0.120181 -0.120181
-0.242531 0.306932 -0.120181 -0.120181
-0.303214 0.247163 -0.120181 -0.120181
-0.349523 0.175677 -0.120181 -0.120181
-0.379261 0.0958623 -0.120181 -0.120181
-0.391019 0.0115028 -0.120181 -0.120181
-0.38424 -0.0734019 -0.120181 -0.120181
-0.359245 -0.154827 -0.120181 -0.120181
-0.317219 -0.228912 -0.120181 -0.120181
-0.260154 -0.292144 -0.120181 -0.120181
-0.190756 -0.341527 -0.120181 -0.120181
-0.112314 -0.374719 -0.120181 -0.120181
-0.0285479 -0.390145 -0.120181 -0.120181
0.0565717 -0.387076 -0.120181 -0.120181
0.139009 -0.365657 -0.120181 -0.120181
0.214857 -0.326902 -0.120181 -0.120181
0.280519 -0.27265 -0.120181 -0.120181
0.332881 -0.205471 -0.120181 -0.120181
0.369463 -0.128552 -0.120181 -0.120181
0.388529 -0.0455386 -0.120181 -0.120181
0.414691 0.0422421 -0.108845 -0.108845
0.395718 0.130996 -0.108845 -0.108845
0.357985 0.21354 -0.108845 -0.108845
0.303281 0.285961 -0.108845 -0.108845
0.234199 0.344824 -0.108845 -0.108845
0.154014 0.387341 -0.108845 -0.108845
0.0665271 0.411494 -0.108845 -0.108845
-0.0241134 0.416139 -0.108845 -0.108845
-0.113611 0.401056 -0.108845 -0.108845
-0.197722 0.366959 -0.108845 -0.108845
-0.27246 0.315466 -0.108845 -0.108845
-0.334281 0.249017 -0.108845 -0.108845
-0.380254 0.170763 -0.108845 -0.108845
-0.4082 0.0844129 -0.108845 -0.108845
-0.416795 -0.0059387 -0.108845 -0.108845
-0.405629 -0.0960088 -0.108845 -0.108845
-0.375234 -0.181527 -0.108845 -0.108845
-0.32705 -0.25844 -0.108845 -0.108845
-0.263361 -0.3231 -0.108845 -0.108845
-0.187187 -0.372443 -0.108845 -0.108845
-0.102138 -0.40413 -0.108845 -0.108845
-0.0122473 -0.416657 -0.108845 -0.108845
0.0782241 -0.409431 -0.108845 -0.108845
0.164987 -0.382795 -0.108845 -0.108845
0.243928 -0.338012 -0.108845 -0.108845
0.311305 -0.277204 -0.108845 -0.108845
0.363924 -0.203254 -0.108845 -0.108845
0.39929 -0.119669 -0.108845 -0.108845
0.415726 -0.0304099 -0.108845 -0.108845
0.437506 0.0639618 -0.0967945 -0.0967945
0.413292 0.157139 -0.0967945 -0.0967945
0.369484 0.242867 -0.0967945 -0.0967945
0.30816 0.317081 -0.0967945 -0.0967945
0.232226 0.376263 -0.0967945 -0.0967945
0.145283 0.417607 -0.0967945 -0.0967945
0.0514526 0.439153 -0.0967945 -0.0967945
-0.0448172 0.43988 -0.0967945 -0.0967945
-0.138962 0.419753 -0.0967945 -0.0967945
-0.226519 0.379726 -0.0967945 -0.0967945
-0.303338 0.321697 -0.0967945 -0.0967945
-0.365776 0.248417 -0.0967945 -0.0967945
-0.410873 0.163361 -0.0967945 -0.0967945
-0.436491 0.0705592 -0.0967945 -0.0967945
-0.441416 -0.0255872 -0.0967945 -0.0967945
-0.425415 -0.120521 -0.0967945 -0.0967945
-0.389245 -0.20974 -0.0967945 -0.0967945
-0.334622 -0.289017 -0.0967945 -0.0967945
-0.264136 -0.354592 -0.0967945 -0.0967945
-0.181127 -0.403356 -0.0967945 -0.0967945
-0.0895315 -0.432998 -0.0967945 -0.0967945
0.00630858 -0.442112 -0.0967945 -0.0967945
0.10185 -0.430267 -0.0967945 -0.0967945
0.192562 -0.398024 -0.0967945 -0.0967945
0.274146 -0.346911 -0.0967945 -0.0967945
0.342733 -0.279352 -0.0967945 -0.0967945
0.395071 -0.198549 -0.0967945 -0.0967945
0.42868 -0.108333 -0.0967945 -0.0967945
0.441967 -0.0129821 -0.0967945 -0.0967945
0.458827 0.08768 -0.0840382 -0.0840382
0.428974 0.18491 -0.0840382 -0.0840382
0.378783 0.273374 -0.0840382 -0.0840382
0.310636 0.348877 -0.0840382 -0.0840382
0.227762 0.407842 -0.0840382 -0.0840382
0.13409 0.447471 -0.0840382 -0.0840382
0.0340608 0.465886 -0.0840382 -0.0840382
-0.0675828 0.462215 -0.0840382 -0.0840382
-0.166022 0.436631 -0.0840382 -0.0840382
-0.256591 0.390347 -0.0840382 -0.0840382
-0.334996 0.325558 -0.0840382 -0.0840382
-0.397519 0.245335 -0.0840382 -0.0840382
-0.441196 0.15348 -0.0840382 -0.0840382
-0.463957 0.05435 -0.0840382 -0.0840382
-0.464723 -0.047357 -0.0840382 -0.0840382
-0.443457 -0.146819 -0.0840382 -0.0840382
-0.401168 -0.23932 -0.0840382 -0.0840382
-0.33986 -0.320476 -0.0840382 -0.0840382
-0.262441 -0.386439 -0.0840382 -0.0840382
-0.172579 -0.434081 -0.0840382 -0.0840382
-0.0745358 -0.461145 -0.0840382 -0.0840382
0.027041 -0.466346 -0.0840382 -0.0840382
0.127336 -0.449439 -0.0840382 -0.0840382
0.221594 -0.411225 -0.0840382 -0.0840382
0.305347 -0.353516 -0.0840382 -0.0840382
0.374624 -0.279047 -0.0840382 -0.0840382
0.42614 -0.191349 -0.0840382 -0.0840382
0.457455 -0.0945797 -0.0840382 -0.0840382
0.491684 0.00703317 -0.0705865 -0.0705865
0.478507 0.113286 -0.0705865 -0.0705865
0.442645 0.214169 -0.0705865 -0.0705865
0.385798 0.304898 -0.0705865 -0.0705865
0.310661 0.381173 -0.0705865 -0.0705865
0.220796 0.439377 -0.0705865 -0.0705865
0.120464 0.476751 -0.0705865 -0.0705865
0.0144205 0.491523 -0.0705865 -0.0705865
-0.0923064 0.482993 -0.0705865 -0.0705865
-0.194657 0.451566 -0.0705865 -0.0705865
-0.28778 0.39873 -0.0705865 -0.0705865
-0.367259 0.326992 -0.0705865 -0.0705865
-0.429328 0.239751 -0.0705865 -0.0705865
-0.471043 0.141145 -0.0705865 -0.0705865
-0.490426 0.0358467 -0.0705865 -0.0705865
-0.48656 -0.0711507 -0.0705865 -0.0705865
-0.459627 -0.174775 -0.0705865 -0.0705865
-0.410903 -0.270113 -0.0705865 -0.0705865
-0.3427 -0.352646 -0.0705865 -0.0705865
-0.25825 -0.418461 -0.0705865 -0.0705865
-0.161557 -0.464438 -0.0705865 -0.0705865
-0.0572047 -0.488396 -0.0705865 -0.0705865
0.0498595 -0.4892 -0.0705865 -0.0705865
0.15456 -0.466813 -0.0705865 -0.0705865
0.251933 -0.422294 -0.0705865 -0.0705865
0.337362 -0.357756 -0.0705865 -0.0705865
0.406798 -0.276257 -0.0705865 -0.0705865
0.456948 -0.181662 -0.0705865 -0.0705865
0.485436 -0.0784537 -0.0705865 -0.0705865
0.515086 0.0298835 -0.0564498 -0.0564498
0.496409 0.14066 -0.0564498 -0.0564498
0.454198 0.244769 -0.0564498 -0.0564498
0.390454 0.337273 -0.0564498 -0.0564498
0.308199 0.413788 -0.0564498 -0.0564498
0.211333 0.470686 -0.0564498 -0.0564498
0.104449 0.50527 -0.0564498 -0.0564498
-0.00738731 0.5159 -0.0564498 -0.0564498
-0.118873 0.502072 -0.0564498 -0.0564498
-0.224724 0.464442 -0.0564498 -0.0564498
-0.319921 0.404794 -0.0564498 -0.0564498
-0.399951 0.325955 -0.0564498 -0.0564498
-0.46102 0.231663 -0.0564498 -0.0564498
-0.500233 0.126389 -0.0564498 -0.0564498
-0.515731 0.0151229 -0.0564498 -0.0564498
-0.506779 -0.0968601 -0.0564498 -0.0564498
-0.473802 -0.204251 -0.0564498 -0.0564498
-0.418363 -0.301959 -0.0564498 -0.0564498
-0.34309 -0.385352 -0.0564498 -0.0564498
-0.251552 -0.450476 -0.0564498 -0.0564498
-0.148089 -0.494244 -0.0564498 -0.0564498
-0.0376044 -0.51458 -0.0564498 -0.0564498
0.0746625 -0.510522 -0.0564498 -0.0564498
0.18339 -0.482261 -0.0564498 -0.0564498
0.283423 -0.431136 -0.0564498 -0.0564498
0.37002 -0.359573 -0.0564498 -0.0564498
0.439075 -0.270962 -0.0564498 -0.0564498
0.487314 -0.169506 -0.0564498 -0.0564498
0.51245 -0.0600143 -0.0564498 -0.0564498
0.536981 0.054745 -0.0416393 -0.0416393
0.512404 0.169671 -0.0416393 -0.0416393
0.463534 0.276554 -0.0416393 -0.0416393
0.392689 0.370326 -0.0416393 -0.0416393
0.303228 0.446541 -0.0416393 -0.0416393
0.199391 0.501587 -0.0416393 -0.0416393
0.0861014 0.532853 -0.0416393 -0.0416393
-0.0312701 0.538858 -0.0416393 -0.0416393
-0.147159 0.519317 -0.0416393 -0.0416393
-0.256072 0.475156 -0.0416393 -0.0416393
-0.352844 0.408469 -0.0416393 -0.0416393
-0.432889 0.322417 -0.0416393 -0.0416393
-0.492412 0.22108 -0.0416393 -0.0416393
-0.52859 0.109262 -0.0416393 -0.0416393
-0.539709 -0.00773564 -0.0416393 -0.0416393
-0.525242 -0.124367 -0.0416393 -0.0416393
-0.485874 -0.235102 -0.0416393 -0.0416393
-0.423471 -0.334691 -0.0416393 -0.0416393
-0.340993 -0.418414 -0.0416393 -0.0416393
-0.242348 -0.4823 -0.0416393 -0.0416393
-0.132215 -0.523321 -0.0416393 -0.0416393
-0.0158135 -0.539533 -0.0416393 -0.0416393
0.101338 -0.530167 -0.0416393 -0.0416393
0.213685 -0.495666 -0.0416393 -0.0416393
0.315901 -0.437667 -0.0416393 -0.0416393
0.403142 -0.358919 -0.0416393 -0.0416393
0.47127 -0.263155 -0.0416393 -0.0416393
0.517056 -0.154916 -0.0416393 -0.0416393
0.53833 -0.0393326 -0.0416393 -0.0416393
0.557223 0.0815073 -0.0261667 -0.0261667
0.526373 0.20018 -0.0261667 -0.0261667
0.470569 0.309363 -0.0261667 -0.0261667
0.392456 0.40388 -0.0261667 -0.0261667
0.295738 0.479249 -0.0261667 -0.0261667
0.184999 0.531898 -0.0261667 -0.0261667
0.0654898 0.559331 -0.0261667 -0.0261667
-0.057124 0.560248 -0.0261667 -0.0261667
-0.17703 0.534604 -0.0261667 -0.0261667
-0.288543 0.483615 -0.0261667 -0.0261667
-0.386377 0.409699 -0.0261667 -0.0261667
-0.465893 0.316361 -0.0261667 -0.0261667
-0.523323 0.208024 -0.0261667 -0.0261667
-0.555942 0.0898251 -0.0261667 -0.0261667
-0.562206 -0.032632 -0.0261667 -0.0261667
-0.541817 -0.153542 -0.0261667 -0.0261667
-0.495741 -0.267173 -0.0261667 -0.0261667
-0.426163 -0.368138 -0.0261667 -0.0261667
-0.336381 -0.45165 -0.0261667 -0.0261667
-0.230653 -0.513751 -0.0261667 -0.0261667
-0.11399 -0.551495 -0.0261667 -0.0261667
0.00807788 -0.563094 -0.0261667 -0.0261667
0.129762 -0.547998 -0.0261667 -0.0261667
0.245295 -0.506923 -0.0261667 -0.0261667
0.349199 -0.441815 -0.0261667 -0.0261667
0.436548 -0.355762 -0.0261667 -0.0261667
0.503201 -0.252843 -0.0261667 -0.0261667
0.545998 -0.137937 -0.0261667 -0.0261667
0.562911 -0.0164916 -0.0261667 -0.0261667
0.575672 0.11005 -0.0100441 -0.0100441
0.538207 0.23204 -0.0100441 -0.0100441
0.475227 0.343029 -0.0100441 -0.0100441
0.389717 0.437756 -0.0100441 -0.0100441
0.285732 0.511729 -0.0100441 -0.0100441
0.1682 0.561443 -0.0100441 -0.0100441
0.0426947 0.58454 -0.0100441 -0.0100441
-0.0848349 0.579924 -0.0100441 -0.0100441
-0.208343 0.547816 -0.0100441 -0.0100441
-0.321973 0.489737 -0.0100441 -0.0100441
-0.42034 0.408441 -0.0100441 -0.0100441
-0.498779 0.307781 -0.0100441 -0.0100441
-0.553572 0.19253 -0.0100441 -0.0100441
-0.582121 0.0681513 -0.0100441 -0.0100441
-0.583073 -0.0594582 -0.0100441 -0.0100441
-0.556383 -0.184249 -0.0100441 -0.0100441
-0.503315 -0.300305 -0.0100441 -0.0100441
-0.426387 -0.402124 -0.0100441 -0.0100441
-0.329244 -0.484879 -0.0100441 -0.0100441
-0.216493 -0.544647 -0.0100441 -0.0100441
-0.0934782 -0.578594 -0.0100441 -0.0100441
0.0339683 -0.585112 -0.0100441 -0.0100441
0.159804 -0.56389 -0.0100441 -0.0100441
0.278065 -0.515936 -0.0100441 -0.0100441
0.383142 -0.443522 -0.0100441 -0.0100441
0.470056 -0.350081 -0.0100441 -0.0100441
0.534685 -0.240044 -0.0100441 -0.0100441
0.573966 -0.118627 -0.0100441 -0.0100441
0.608517 0.00874303 0.00671585 0.00671585
0.592201 0.140243 0.00671585 0.00671585
0.547809 0.265094 0.00671585 0.00671585
0.477447 0.377378 0.00671585 0.00671585
0.38445 0.471771 0.00671585 0.00671585
0.273227 0.543798 0.00671585 0.00671585
0.149051 0.590045 0.00671585 0.00671585
0.0178084 0.608319 0.00671585 0.00671585
-0.114278 0.597754 0.00671585 0.00671585
-0.240947 0.558851 0.00671585 0.00671585
-0.356193 0.493453 0.00671585 0.00671585
-0.454553 0.404662 0.00671585 0.00671585
-0.531363 0.296687 0.00671585 0.00671585
-0.582982 0.174646 0.00671585 0.00671585
-0.606964 0.044326 0.00671585 0.00671585
-0.60217 -0.0880957 0.00671585 0.00671585
-0.568829 -0.216341 0.00671585 0.00671585
-0.508521 -0.33433 0.00671585 0.00671585
-0.424104 -0.436469 0.00671585 0.00671585
-0.319582 -0.517916 0.00671585 0.00671585
-0.199909 -0.574809 0.00671585 0.00671585
-0.0707592 -0.604452 0.00671585 0.00671585
0.0617455 -0.60544 0.00671585 0.00671585
0.191323 -0.577724 0.00671585 0.00671585
0.31183 -0.52262 0.00671585 0.00671585
0.417554 -0.442739 0.00671585 0.00671585
0.503483 -0.341869 0.00671585 0.00671585
0.565542 -0.224792 0.00671585 0.00671585
0.600791 -0.0970577 0.00671585 0.00671585
